-2.754942e+00 1.456597e+00 1.093800e+00 -1.570796e+00 8.305138e-01 6.236564e-01
-1.307237e+00 2.754942e+00 1.140046e+00 -7.453525e-01 1.570796e+00 6.500247e-01
-3.940303e-01 -7.539617e-02 -2.754942e+00 -2.246659e-01 -4.298893e-02 -1.570796e+00
2.008916e+00 1.938528e-01 -2.754942e+00 1.145432e+00 1.105298e-01 -1.570796e+00
9.168018e-01 2.754942e+00 9.883466e-01 5.227365e-01 1.570796e+00 5.635296e-01
-4.182909e-01 -2.754942e+00 -1.834195e+00 -2.384986e-01 -1.570796e+00 -1.045810e+00
-2.754942e+00 5.284208e-01 -2.069160e+00 -1.570796e+00 3.012918e-01 -1.179781e+00
-1.467602e+00 -2.754942e+00 2.330789e+00 -8.367885e-01 -1.570796e+00 1.328955e+00
1.445032e+00 1.868795e+00 2.754942e+00 8.239199e-01 1.065539e+00 1.570796e+00
-2.550498e+00 -2.754942e+00 -2.344026e+00 -1.454228e+00 -1.570796e+00 -1.336503e+00
2.754942e+00 1.850001e+00 -1.935429e+00 1.570796e+00 1.054822e+00 -1.103531e+00
2.754942e+00 2.044367e+00 2.090380e-01 1.570796e+00 1.165645e+00 1.191880e-01
-2.754942e+00 2.259931e+00 4.830754e-02 -1.570796e+00 1.288554e+00 2.754371e-02
2.338002e+00 1.451341e+00 2.754942e+00 1.333068e+00 8.275167e-01 1.570796e+00
-7.232082e-01 -1.506284e+00 2.754942e+00 -4.123545e-01 -8.588442e-01 1.570796e+00
2.754942e+00 1.452271e+00 2.390565e+00 1.570796e+00 8.280469e-01 1.363038e+00
1.106339e+00 2.754942e+00 -1.414732e-01 6.308056e-01 1.570796e+00 -8.066436e-02
2.754942e+00 -7.026882e-01 4.238758e-01 1.570796e+00 -4.006546e-01 2.416830e-01
-2.107755e+00 2.754942e+00 -1.448708e+00 -1.201787e+00 1.570796e+00 -8.260155e-01
1.659232e+00 2.754942e+00 -2.015010e+00 9.460511e-01 1.570796e+00 -1.148906e+00
2.148309e+00 2.754942e+00 -2.079238e+00 1.224910e+00 1.570796e+00 -1.185528e+00
2.323142e+00 2.754942e+00 -1.620952e+00 1.324595e+00 1.570796e+00 -9.242245e-01
-1.058146e+00 2.754942e+00 -2.193531e+00 -6.033276e-01 1.570796e+00 -1.250694e+00
2.624804e+00 2.754942e+00 2.202858e+00 1.496595e+00 1.570796e+00 1.256013e+00
-5.276008e-01 -2.754942e+00 2.084465e+00 -3.008243e-01 -1.570796e+00 1.188508e+00
-1.666619e+00 -2.596568e+00 2.754942e+00 -9.502628e-01 -1.480496e+00 1.570796e+00
6.838907e-01 1.267181e+00 2.754942e+00 3.899367e-01 7.225136e-01 1.570796e+00
2.634770e+00 -2.754942e+00 -1.857656e+00 1.502277e+00 -1.570796e+00 -1.059187e+00
8.476456e-01 -2.754942e+00 -1.161819e-01 4.833055e-01 -1.570796e+00 -6.624387e-02
7.092473e-01 2.754942e+00 -6.195732e-01 4.043944e-01 1.570796e+00 -3.532646e-01
2.754942e+00 -1.270717e+00 2.317476e+00 1.570796e+00 -7.245296e-01 1.321365e+00
2.754942e+00 -2.032396e+00 6.342696e-01 1.570796e+00 -1.158819e+00 3.616441e-01
-2.754942e+00 2.006505e+00 -1.687259e+00 -1.570796e+00 1.144057e+00 -9.620310e-01
-5.722466e-01 2.754942e+00 -1.982512e+00 -3.262801e-01 1.570796e+00 -1.130377e+00
2.754942e+00 4.585728e-01 -1.379073e+00 1.570796e+00 2.614663e-01 -7.863116e-01
-2.754942e+00 -1.813877e+00 2.078589e+00 -1.570796e+00 -1.034226e+00 1.185157e+00
-2.754942e+00 1.468647e+00 -1.151957e+00 -1.570796e+00 8.373845e-01 -6.568158e-01
-2.754942e+00 -1.682249e+00 1.021050e+00 -1.570796e+00 -9.591747e-01 5.821762e-01
-2.501530e+00 -2.754942e+00 -2.723253e+00 -1.426307e+00 -1.570796e+00 -1.552728e+00
-2.169290e+00 -2.754942e+00 -2.117348e+00 -1.236873e+00 -1.570796e+00 -1.207257e+00
2.754942e+00 -1.856913e+00 -1.090980e+00 1.570796e+00 -1.058764e+00 -6.220487e-01
-1.395467e+00 1.709988e+00 -2.754942e+00 -7.956589e-01 9.749905e-01 -1.570796e+00
2.007925e-01 9.566938e-01 -2.754942e+00 1.144867e-01 5.454820e-01 -1.570796e+00
1.603161e+00 2.754942e+00 9.939888e-01 9.140807e-01 1.570796e+00 5.667466e-01
-2.754942e+00 8.527248e-01 -1.499756e+00 -1.570796e+00 4.862015e-01 -8.551222e-01
8.863793e-01 -2.754942e+00 -1.262915e+00 5.053905e-01 -1.570796e+00 -7.200815e-01
2.754942e+00 -2.591274e+00 1.539478e+00 1.570796e+00 -1.477477e+00 8.777706e-01
2.754942e+00 1.248661e+00 1.212706e+00 1.570796e+00 7.119542e-01 6.914532e-01
7.302231e-01 -2.186424e+00 -2.754942e+00 4.163542e-01 -1.246642e+00 -1.570796e+00
6.984931e-01 2.754942e+00 6.196226e-01 3.982626e-01 1.570796e+00 3.532927e-01
7.849248e-02 2.754942e+00 2.584740e+00 4.475438e-02 1.570796e+00 1.473752e+00
8.058944e-01 2.754942e+00 1.446565e+00 4.595000e-01 1.570796e+00 8.247937e-01
-1.258456e+00 -2.754942e+00 -2.661000e+00 -7.175387e-01 -1.570796e+00 -1.517233e+00
-2.754942e+00 -3.370795e-02 -1.059803e+00 -1.570796e+00 -1.921940e-02 -6.042719e-01
1.381799e+00 2.754942e+00 -1.719758e+00 7.878659e-01 1.570796e+00 -9.805613e-01
2.642764e+00 2.262400e+00 2.754942e+00 1.506835e+00 1.289962e+00 1.570796e+00
-2.754942e+00 8.810562e-02 1.601788e+00 -1.570796e+00 5.023553e-02 9.132981e-01
2.754942e+00 8.413939e-01 -1.778914e+00 1.570796e+00 4.797410e-01 -1.014290e+00
-2.754942e+00 -1.454096e+00 -1.917479e+00 -1.570796e+00 -8.290879e-01 -1.093297e+00
-1.533401e-01 -2.754942e+00 -2.115874e+00 -8.743057e-02 -1.570796e+00 -1.206417e+00
-2.754942e+00 -5.292810e-01 2.158669e+00 -1.570796e+00 -3.017823e-01 1.230817e+00
-2.501697e-01 2.754942e+00 5.629970e-02 -1.426403e-01 1.570796e+00 3.210063e-02
1.808279e+00 -2.754942e+00 3.251377e-02 1.031034e+00 -1.570796e+00 1.853850e-02
2.754942e+00 -8.341247e-01 2.674625e+00 1.570796e+00 -4.755963e-01 1.525002e+00
2.754942e+00 8.850296e-01 -2.188651e+00 1.570796e+00 5.046209e-01 -1.247912e+00
-2.754942e+00 -2.399967e+00 -1.383325e+00 -1.570796e+00 -1.368399e+00 -7.887358e-01
1.185583e+00 2.754942e+00 -7.845922e-02 6.759885e-01 1.570796e+00 -4.473541e-02
2.748311e+00 -2.754942e+00 -8.026309e-02 1.567016e+00 -1.570796e+00 -4.576393e-02
2.051382e+00 -2.754942e+00 -7.988334e-02 1.169645e+00 -1.570796e+00 -4.554740e-02
2.754942e+00 1.387824e+00 2.317461e+00 1.570796e+00 7.913009e-01 1.321356e+00
-9.472956e-01 -2.754942e+00 -2.490262e+00 -5.401233e-01 -1.570796e+00 -1.419882e+00
2.754942e+00 -1.875366e+00 2.186005e+00 1.570796e+00 -1.069285e+00 1.246403e+00
-1.912684e+00 -2.754942e+00 -1.874429e+00 -1.090563e+00 -1.570796e+00 -1.068751e+00
2.496099e+00 2.754942e+00 -2.023026e+00 1.423211e+00 1.570796e+00 -1.153477e+00
2.754942e+00 -6.596001e-01 1.540299e+00 1.570796e+00 -3.760869e-01 8.782385e-01
-1.454656e+00 -2.754942e+00 -8.548208e-01 -8.294072e-01 -1.570796e+00 -4.873966e-01
2.754942e+00 3.312986e-01 -1.688611e+00 1.570796e+00 1.888978e-01 -9.628019e-01
2.754942e+00 6.140478e-01 6.242709e-02 1.570796e+00 3.501141e-01 3.559430e-02
2.390609e+00 -2.754942e+00 -2.389488e+00 1.363063e+00 -1.570796e+00 -1.362424e+00
3.416490e-01 2.721774e+00 2.754942e+00 1.947994e-01 1.551885e+00 1.570796e+00
-2.635058e+00 -8.765055e-02 -2.754942e+00 -1.502442e+00 -4.997607e-02 -1.570796e+00
2.754942e+00 1.938213e+00 1.101953e+00 1.570796e+00 1.105119e+00 6.283049e-01
2.754942e+00 -1.011997e+00 -8.528856e-01 1.570796e+00 -5.770141e-01 -4.862932e-01
2.754942e+00 -1.073347e-01 -6.063907e-02 1.570796e+00 -6.119948e-02 -3.457482e-02
2.266191e+00 2.754942e+00 9.704629e-01 1.292123e+00 1.570796e+00 5.533328e-01
-2.754942e+00 2.235504e+00 1.949825e+00 -1.570796e+00 1.274626e+00 1.111739e+00
2.754942e+00 -1.620156e+00 4.787789e-01 1.570796e+00 -9.237707e-01 2.729873e-01
1.044667e+00 1.728696e+00 2.754942e+00 5.956418e-01 9.856576e-01 1.570796e+00
2.548703e+00 -1.257473e+00 2.754942e+00 1.453204e+00 -7.169784e-01 1.570796e+00
-3.863428e-01 2.754942e+00 -3.292354e-01 -2.202826e-01 1.570796e+00 -1.877215e-01
1.657910e+00 2.754942e+00 1.761903e-01 9.452973e-01 1.570796e+00 1.004591e-01
-2.322490e+00 -1.944160e+00 -2.754942e+00 -1.324223e+00 -1.108510e+00 -1.570796e+00
-2.754942e+00 1.184617e+00 -6.631482e-01 -1.570796e+00 6.754380e-01 -3.781099e-01
2.754942e+00 -4.125715e-01 9.306137e-02 1.570796e+00 -2.352376e-01 5.306118e-02
1.460013e+00 7.591085e-01 2.754942e+00 8.324613e-01 4.328239e-01 1.570796e+00
-2.754942e+00 2.713025e+00 -1.809961e+00 -1.570796e+00 1.546897e+00 -1.031993e+00
-2.007372e+00 -1.639097e+00 -2.754942e+00 -1.144551e+00 -9.345705e-01 -1.570796e+00
-1.076447e+00 -4.766044e-01 2.754942e+00 -6.137620e-01 -2.717475e-01 1.570796e+00
2.002219e+00 -2.754942e+00 2.471658e+00 1.141614e+00 -1.570796e+00 1.409275e+00
-2.750267e+00 -2.754942e+00 2.396347e+00 -1.568131e+00 -1.570796e+00 1.366335e+00
-2.754942e+00 2.453171e+00 -1.547434e+00 -1.570796e+00 1.398734e+00 -8.823067e-01
-1.553851e+00 -1.460764e+00 -2.754942e+00 -8.859654e-01 -8.328896e-01 -1.570796e+00
2.754942e+00 1.371465e-01 -2.653878e+00 1.570796e+00 7.819738e-02 -1.513172e+00
5.618372e-01 5.014363e-01 -2.754942e+00 3.203450e-01 2.859060e-01 -1.570796e+00
2.754942e+00 2.422219e+00 1.300444e+00 1.570796e+00 1.381086e+00 7.414792e-01
8.601860e-01 -2.433532e+00 -2.754942e+00 4.904557e-01 -1.387536e+00 -1.570796e+00
-4.221569e-01 6.855143e-01 2.754942e+00 -2.407029e-01 3.908624e-01 1.570796e+00
-2.754942e+00 1.552108e+00 3.747404e-01 -1.570796e+00 8.849719e-01 2.136673e-01
-8.509918e-01 2.754942e+00 7.344908e-01 -4.852134e-01 1.570796e+00 4.187876e-01
-4.275632e-01 -2.754942e+00 1.260501e+00 -2.437854e-01 -1.570796e+00 7.187051e-01
-1.564010e+00 2.754942e+00 1.427868e-01 -8.917581e-01 1.570796e+00 8.141330e-02
3.804692e-01 -2.754942e+00 1.481938e-01 2.169336e-01 -1.570796e+00 8.449627e-02
8.272268e-02 2.346225e-01 -2.754942e+00 4.716632e-02 1.337757e-01 -1.570796e+00
-2.754942e+00 -3.175558e-01 -1.500240e+00 -1.570796e+00 -1.810620e-01 -8.553980e-01
-5.730102e-01 2.754942e+00 -8.228322e-01 -3.267155e-01 1.570796e+00 -4.691575e-01
-9.692489e-01 -2.754942e+00 -7.683775e-01 -5.526405e-01 -1.570796e+00 -4.381089e-01
2.319676e+00 2.754942e+00 2.146922e+00 1.322619e+00 1.570796e+00 1.224119e+00
2.754942e+00 -1.637011e+00 2.174208e-01 1.570796e+00 -9.333810e-01 1.239677e-01
-1.773375e+00 -2.754942e+00 -1.188277e-01 -1.011132e+00 -1.570796e+00 -6.775249e-02
-2.441617e+00 -2.754942e+00 -8.540398e-01 -1.392147e+00 -1.570796e+00 -4.869513e-01
-1.888768e+00 5.980804e-01 2.754942e+00 -1.076926e+00 3.410099e-01 1.570796e+00
-1.567898e+00 -2.754942e+00 -1.040815e+00 -8.939746e-01 -1.570796e+00 -5.934455e-01
2.292183e-02 2.754942e+00 -1.344669e+00 1.306943e-02 1.570796e+00 -7.666955e-01
2.692857e-01 2.596845e+00 -2.754942e+00 1.535397e-01 1.480654e+00 -1.570796e+00
1.413052e+00 2.754942e+00 3.368169e-01 8.056858e-01 1.570796e+00 1.920443e-01
2.754942e+00 2.232118e+00 2.326785e+00 1.570796e+00 1.272696e+00 1.326673e+00
-2.754942e+00 -2.191863e+00 1.036382e+00 -1.570796e+00 -1.249743e+00 5.909178e-01
2.754942e+00 8.190913e-01 -1.264985e+00 1.570796e+00 4.670246e-01 -7.212615e-01
7.685961e-01 2.754942e+00 -2.741315e+00 4.382335e-01 1.570796e+00 -1.563026e+00
-7.518672e-01 2.754942e+00 -8.539244e-01 -4.286951e-01 1.570796e+00 -4.868855e-01
-2.115855e+00 -2.567894e+00 2.754942e+00 -1.206406e+00 -1.464146e+00 1.570796e+00
2.271052e+00 1.724630e+00 2.754942e+00 1.294895e+00 9.833393e-01 1.570796e+00
-2.345061e+00 -1.194365e+00 2.754942e+00 -1.337093e+00 -6.809957e-01 1.570796e+00
-2.754942e+00 -8.721461e-01 -2.309758e+00 -1.570796e+00 -4.972750e-01 -1.316964e+00
8.977786e-02 2.754942e+00 5.436010e-01 5.118901e-02 1.570796e+00 3.099471e-01
-2.050600e+00 2.754942e+00 -1.143312e+00 -1.169199e+00 1.570796e+00 -6.518867e-01
1.480347e+00 1.954355e+00 2.754942e+00 8.440555e-01 1.114322e+00 1.570796e+00
2.754942e+00 1.143022e+00 2.036331e+00 1.570796e+00 6.517214e-01 1.161063e+00
1.262630e+00 2.754942e+00 1.173823e+00 7.199186e-01 1.570796e+00 6.692832e-01
-2.563322e+00 2.754942e+00 2.382480e+00 -1.461540e+00 1.570796e+00 1.358428e+00
2.754942e+00 -2.034538e+00 1.752554e-01 1.570796e+00 -1.160041e+00 9.992609e-02
8.716330e-01 -2.754942e+00 -1.048195e+00 4.969825e-01 -1.570796e+00 -5.976533e-01
-1.226462e+00 2.754942e+00 1.515031e+00 -6.992970e-01 1.570796e+00 8.638314e-01
-2.754942e+00 9.152489e-01 -2.227192e+00 -1.570796e+00 5.218511e-01 -1.269887e+00
-2.631510e+00 2.754942e+00 -1.722651e+00 -1.500419e+00 1.570796e+00 -9.822108e-01
-2.754942e+00 2.633213e+00 -7.299561e-01 -1.570796e+00 1.501390e+00 -4.162020e-01
-5.027031e-01 1.270650e+00 2.754942e+00 -2.866282e-01 7.244915e-01 1.570796e+00
-1.732357e+00 4.054444e-02 -2.754942e+00 -9.877451e-01 2.311739e-02 -1.570796e+00
2.754942e+00 4.468343e-01 2.659418e+00 1.570796e+00 2.547733e-01 1.516331e+00
-3.122331e-01 -1.288094e-01 -2.754942e+00 -1.780272e-01 -7.344376e-02 -1.570796e+00
2.754942e+00 1.078159e+00 3.935961e-01 1.570796e+00 6.147380e-01 2.244183e-01
2.754942e+00 -2.093001e+00 -1.383429e+00 1.570796e+00 -1.193375e+00 -7.887955e-01
9.131348e-01 2.754942e+00 -1.037303e+00 5.206457e-01 1.570796e+00 -5.914430e-01
-2.529702e+00 2.754942e+00 7.068963e-01 -1.442371e+00 1.570796e+00 4.030539e-01
-1.805555e+00 -6.929925e-01 2.754942e+00 -1.029481e+00 -3.951263e-01 1.570796e+00
-2.754942e+00 2.176520e+00 1.072929e-01 -1.570796e+00 1.240995e+00 6.117560e-02
8.564687e-01 2.136103e+00 2.754942e+00 4.883362e-01 1.217950e+00 1.570796e+00
-7.717888e-01 -2.049695e+00 2.754942e+00 -4.400539e-01 -1.168683e+00 1.570796e+00
-3.898929e-01 2.754942e+00 1.515435e+00 -2.223068e-01 1.570796e+00 8.640615e-01
1.316068e+00 -2.754942e+00 1.850763e+00 7.503880e-01 -1.570796e+00 1.055257e+00
6.209026e-01 1.364758e+00 2.754942e+00 3.540225e-01 7.781495e-01 1.570796e+00
9.804368e-03 2.754942e+00 3.755674e-01 5.590196e-03 1.570796e+00 2.141388e-01
1.928607e+00 2.754942e+00 -9.026885e-01 1.099642e+00 1.570796e+00 -5.146896e-01
-2.754942e+00 -2.244069e+00 -1.866911e+00 -1.570796e+00 -1.279510e+00 -1.064464e+00
-2.754942e+00 1.710424e-02 1.708958e+00 -1.570796e+00 9.752391e-03 9.744035e-01
-2.754942e+00 1.878623e+00 1.592912e+00 -1.570796e+00 1.071142e+00 9.082372e-01
1.702245e+00 2.754942e+00 1.534495e+00 9.705758e-01 1.570796e+00 8.749289e-01
-1.909233e+00 -2.453551e+00 -2.754942e+00 -1.088595e+00 -1.398951e+00 -1.570796e+00
-1.160388e+00 -9.385547e-03 -2.754942e+00 -6.616234e-01 -5.351395e-03 -1.570796e+00
2.681707e-01 1.764639e+00 2.754942e+00 1.529040e-01 1.006152e+00 1.570796e+00
2.499087e+00 2.754942e+00 1.501123e+00 1.424915e+00 1.570796e+00 8.559013e-01
2.754942e+00 2.983253e-01 4.445495e-02 1.570796e+00 1.700973e-01 2.534706e-02
-6.699893e-01 1.400589e+00 2.754942e+00 -3.820105e-01 7.985793e-01 1.570796e+00
-2.754942e+00 -5.881217e-01 1.149345e+00 -1.570796e+00 -3.353317e-01 6.553266e-01
-9.496861e-01 -1.591491e+00 2.754942e+00 -5.414864e-01 -9.074268e-01 1.570796e+00
3.054089e-01 2.374848e+00 -2.754942e+00 1.741362e-01 1.354077e+00 -1.570796e+00
-2.754942e+00 8.363890e-01 -5.166589e-01 -1.570796e+00 4.768873e-01 -2.945855e-01
-2.754942e+00 -2.527542e+00 1.741129e+00 -1.570796e+00 -1.441139e+00 9.927468e-01
1.260057e+00 2.514598e+00 -2.754942e+00 7.184520e-01 1.433759e+00 -1.570796e+00
2.754942e+00 -2.254188e+00 -1.261870e-01 1.570796e+00 -1.285280e+00 -7.194853e-02
-2.754942e+00 2.327659e+00 -1.899127e-01 -1.570796e+00 1.327171e+00 -1.082833e-01
1.433101e-01 -2.754942e+00 2.668905e+00 8.171167e-02 -1.570796e+00 1.521740e+00
-5.141656e-01 1.475063e-01 2.754942e+00 -2.931639e-01 8.410426e-02 1.570796e+00
1.339479e+00 2.754942e+00 7.472069e-03 7.637362e-01 1.570796e+00 4.260380e-03
1.759217e+00 6.436688e-01 2.754942e+00 1.003060e+00 3.670033e-01 1.570796e+00
-1.562862e-02 -2.754942e+00 2.069463e+00 -8.911033e-03 -1.570796e+00 1.179954e+00
-1.468673e+00 -2.754942e+00 1.078797e+00 -8.373995e-01 -1.570796e+00 6.151018e-01
-3.567991e-02 -2.422099e+00 -2.754942e+00 -2.034376e-02 -1.381018e+00 -1.570796e+00
2.516393e+00 -7.758428e-02 -2.754942e+00 1.434782e+00 -4.423654e-02 -1.570796e+00
7.979121e-01 2.754942e+00 -2.457339e-01 4.549488e-01 1.570796e+00 -1.401111e-01
2.688000e+00 2.754942e+00 1.057207e+00 1.532628e+00 1.570796e+00 6.027920e-01
-1.833337e+00 -1.207752e-01 2.754942e+00 -1.045321e+00 -6.886290e-02 1.570796e+00
2.754942e+00 -2.338317e+00 -8.326199e-01 1.570796e+00 -1.333248e+00 -4.747382e-01
-1.266588e+00 1.209421e+00 2.754942e+00 -7.221756e-01 6.895806e-01 1.570796e+00
6.793791e-01 2.754942e+00 1.304632e+00 3.873643e-01 1.570796e+00 7.438670e-01
-2.754942e+00 -1.302351e+00 2.294911e+00 -1.570796e+00 -7.425667e-01 1.308499e+00
1.903478e+00 -2.754942e+00 2.418213e+00 1.085314e+00 -1.570796e+00 1.378802e+00
2.754942e+00 2.140120e+00 1.358398e+00 1.570796e+00 1.220241e+00 7.745233e-01
1.587396e+00 -2.022991e+00 2.754942e+00 9.050922e-01 -1.153457e+00 1.570796e+00
2.366691e+00 1.839658e+00 -2.754942e+00 1.349426e+00 1.048925e+00 -1.570796e+00
-5.853754e-01 -2.754942e+00 2.472862e+00 -3.337658e-01 -1.570796e+00 1.409962e+00
-1.441911e-01 -4.005732e-01 -2.754942e+00 -8.221401e-02 -2.283964e-01 -1.570796e+00
1.990526e+00 -2.754942e+00 -1.201156e+00 1.134946e+00 -1.570796e+00 -6.848679e-01
-1.825057e+00 2.754942e+00 -4.040815e-01 -1.040600e+00 1.570796e+00 -2.303968e-01
2.259139e+00 2.549429e+00 -2.754942e+00 1.288102e+00 1.453618e+00 -1.570796e+00
-1.358519e+00 -8.305523e-01 2.754942e+00 -7.745920e-01 -4.735593e-01 1.570796e+00
-6.543980e-01 -2.754942e+00 -1.262476e+00 -3.731207e-01 -1.570796e+00 -7.198309e-01
2.754942e+00 1.590760e+00 -5.954601e-01 1.570796e+00 9.070099e-01 -3.395159e-01
2.754942e+00 -1.402465e+00 -5.697980e-01 1.570796e+00 -7.996494e-01 -3.248840e-01
-2.541002e+00 2.754942e+00 -2.339047e+00 -1.448814e+00 1.570796e+00 -1.333664e+00
2.754942e+00 1.967615e+00 2.723904e-01 1.570796e+00 1.121883e+00 1.553099e-01
2.263041e+00 -2.754942e+00 -6.467989e-01 1.290327e+00 -1.570796e+00 -3.687879e-01
-2.117679e+00 2.754942e+00 -1.962767e+00 -1.207446e+00 1.570796e+00 -1.119119e+00
6.438139e-01 -1.461868e+00 -2.754942e+00 3.670859e-01 -8.335192e-01 -1.570796e+00
2.130564e+00 2.740593e+00 -2.754942e+00 1.214792e+00 1.562615e+00 -1.570796e+00
-1.682781e+00 2.564605e+00 2.754942e+00 -9.594782e-01 1.462271e+00 1.570796e+00
-2.411253e+00 -2.282047e+00 -2.754942e+00 -1.374834e+00 -1.301164e+00 -1.570796e+00
-1.524917e+00 -2.754942e+00 -1.738240e+00 -8.694680e-01 -1.570796e+00 -9.910994e-01
-2.047979e+00 -4.457763e-01 2.754942e+00 -1.167705e+00 -2.541701e-01 1.570796e+00
-1.335918e+00 2.754942e+00 2.294934e+00 -7.617059e-01 1.570796e+00 1.308512e+00
1.690527e+00 -2.754942e+00 3.577453e-02 9.638945e-01 -1.570796e+00 2.039771e-02
-1.155782e+00 1.816169e+00 2.754942e+00 -6.589971e-01 1.035532e+00 1.570796e+00
2.754942e+00 9.506029e-01 -2.754507e+00 1.570796e+00 5.420091e-01 -1.570548e+00
-8.229215e-02 -2.754942e+00 2.649754e+00 -4.692085e-02 -1.570796e+00 1.510821e+00
1.143239e+00 -7.192716e-01 2.754942e+00 6.518454e-01 -4.101100e-01 1.570796e+00
-2.754942e+00 -2.281164e-01 9.886193e-01 -1.570796e+00 -1.300661e-01 5.636850e-01
2.754942e+00 -1.963848e+00 1.471456e+00 1.570796e+00 -1.119735e+00 8.389862e-01
2.754942e+00 4.809113e-01 -1.036546e+00 1.570796e+00 2.742032e-01 -5.910117e-01
-2.754942e+00 -1.909099e+00 6.294925e-01 -1.570796e+00 -1.088519e+00 3.589203e-01
1.053447e+00 2.754942e+00 -5.202022e-01 6.006482e-01 1.570796e+00 -2.966058e-01
1.492481e+00 -2.754942e+00 6.939193e-01 8.509738e-01 -1.570796e+00 3.956547e-01
1.236306e-01 2.754942e+00 1.824867e+00 7.049095e-02 1.570796e+00 1.040492e+00
-1.230331e+00 1.121713e+00 2.754942e+00 -7.015027e-01 6.395717e-01 1.570796e+00
2.754942e+00 4.306145e-01 -2.327885e+00 1.570796e+00 2.455252e-01 -1.327300e+00
2.754942e+00 1.357862e+00 3.465565e-01 1.570796e+00 7.742175e-01 1.975975e-01
-2.754942e+00 3.604134e-01 -1.042371e+00 -1.570796e+00 2.054984e-01 -5.943326e-01
-2.754942e+00 -2.136731e+00 -1.515389e+00 -1.570796e+00 -1.218309e+00 -8.640354e-01
7.322596e-01 -1.229525e+00 2.754942e+00 4.175154e-01 -7.010431e-01 1.570796e+00
2.401047e+00 -2.754942e+00 4.130695e-01 1.369014e+00 -1.570796e+00 2.355215e-01
7.041702e-01 2.754942e+00 -7.495680e-01 4.014995e-01 1.570796e+00 -4.273842e-01
-1.033499e+00 2.754942e+00 1.275664e+00 -5.892744e-01 1.570796e+00 7.273502e-01
8.819412e-01 -2.754942e+00 -9.443809e-01 5.028600e-01 -1.570796e+00 -5.384614e-01
-1.136146e-01 -1.271637e+00 2.754942e+00 -6.478009e-02 -7.250546e-01 1.570796e+00
-2.754942e+00 9.330007e-01 2.408817e+00 -1.570796e+00 5.319727e-01 1.373445e+00
2.754942e+00 1.390208e-01 -2.126006e+00 1.570796e+00 7.926606e-02 -1.212194e+00
7.760121e-01 2.754942e+00 1.543464e+00 4.424619e-01 1.570796e+00 8.800431e-01
-2.456840e+00 1.106158e+00 -2.754942e+00 -1.400826e+00 6.307027e-01 -1.570796e+00
-2.754942e+00 -5.396072e-01 -1.958197e+00 -1.570796e+00 -3.076700e-01 -1.116513e+00
7.749309e-01 -2.754942e+00 -7.807106e-01 4.418455e-01 -1.570796e+00 -4.451409e-01
-2.754942e+00 1.957752e+00 -1.577022e+00 -1.570796e+00 1.116259e+00 -8.991768e-01
-1.700280e+00 7.266383e-01 2.754942e+00 -9.694552e-01 4.143103e-01 1.570796e+00
-1.302326e+00 2.466943e+00 2.754942e+00 -7.425523e-01 1.406587e+00 1.570796e+00
-2.083991e+00 -2.754942e+00 -1.055722e+00 -1.188237e+00 -1.570796e+00 -6.019455e-01
-2.574272e+00 2.420270e+00 -2.754942e+00 -1.467783e+00 1.379975e+00 -1.570796e+00
1.515060e+00 6.337104e-01 2.754942e+00 8.638478e-01 3.613252e-01 1.570796e+00
2.754942e+00 -2.149665e+00 -1.696892e+00 1.570796e+00 -1.225683e+00 -9.675238e-01
-7.133566e-01 2.754942e+00 -7.319152e-01 -4.067374e-01 1.570796e+00 -4.173191e-01
-2.342991e+00 2.754942e+00 -2.270607e+00 -1.335913e+00 1.570796e+00 -1.294641e+00
2.754942e+00 1.744440e+00 -1.050052e+00 1.570796e+00 9.946342e-01 -5.987123e-01
2.754942e+00 1.036953e+00 -6.845888e-01 1.570796e+00 5.912436e-01 -3.903348e-01
-2.754942e+00 -2.109182e+00 2.678185e+00 -1.570796e+00 -1.202601e+00 1.527032e+00
-2.569768e+00 -2.754942e+00 -3.633272e-01 -1.465215e+00 -1.570796e+00 -2.071597e-01
-1.829601e+00 2.754942e+00 7.208735e-01 -1.043191e+00 1.570796e+00 4.110233e-01
2.754942e+00 -9.138327e-01 -4.911579e-01 1.570796e+00 -5.210437e-01 -2.800455e-01
7.895355e-01 2.754942e+00 -3.773553e-01 4.501726e-01 1.570796e+00 -2.151582e-01
-2.754942e+00 -1.197394e+00 1.786416e+00 -1.570796e+00 -6.827230e-01 1.018568e+00
-1.214522e+00 -2.754942e+00 1.595730e+00 -6.924890e-01 -1.570796e+00 9.098438e-01
-2.754942e+00 -2.402716e+00 7.460729e-01 -1.570796e+00 -1.369966e+00 4.253914e-01
-2.754942e+00 2.382828e+00 -2.381989e+00 -1.570796e+00 1.358627e+00 -1.358148e+00
-2.630244e+00 -1.639827e+00 2.754942e+00 -1.499697e+00 -9.349870e-01 1.570796e+00
1.658484e+00 2.754942e+00 -1.076652e+00 9.456243e-01 1.570796e+00 -6.138788e-01
-2.754942e+00 -6.371742e-01 2.120522e+00 -1.570796e+00 -3.633002e-01 1.209067e+00
-2.754942e+00 1.593247e+00 1.103927e+00 -1.570796e+00 9.084279e-01 6.294306e-01
-2.754942e+00 -3.614830e-01 -1.804838e+00 -1.570796e+00 -2.061082e-01 -1.029071e+00
-1.515788e+00 -2.754942e+00 -3.349782e-01 -8.642631e-01 -1.570796e+00 -1.909959e-01
-9.174683e-01 -1.649155e-01 -2.754942e+00 -5.231166e-01 -9.403055e-02 -1.570796e+00
-1.539524e+00 2.604832e+00 2.754942e+00 -8.777966e-01 1.485207e+00 1.570796e+00
-1.153774e+00 2.394676e-01 2.754942e+00 -6.578521e-01 1.365382e-01 1.570796e+00
-3.348970e-01 -2.754942e+00 7.027416e-01 -1.909496e-01 -1.570796e+00 4.006850e-01
2.754942e+00 1.664896e+00 1.117850e-01 1.570796e+00 9.492806e-01 6.373693e-02
-1.753988e+00 1.966527e+00 -2.754942e+00 -1.000079e+00 1.121263e+00 -1.570796e+00
-8.505156e-01 2.754942e+00 -2.562380e-01 -4.849419e-01 1.570796e+00 -1.461002e-01
8.319290e-01 -6.742819e-01 2.754942e+00 4.743443e-01 -3.844580e-01 1.570796e+00
2.524947e+00 6.379678e-01 -2.754942e+00 1.439659e+00 3.637527e-01 -1.570796e+00
2.754942e+00 -2.288285e+00 -1.139169e+00 1.570796e+00 -1.304721e+00 -6.495247e-01
2.754942e+00 2.110012e+00 7.232906e-01 1.570796e+00 1.203074e+00 4.124015e-01
-2.754942e+00 -1.379391e+00 -7.500209e-01 -1.570796e+00 -7.864927e-01 -4.276424e-01
4.581992e-02 -2.754942e+00 -4.813021e-01 2.612533e-02 -1.570796e+00 -2.744259e-01
2.261609e+00 -1.301479e+00 2.754942e+00 1.289511e+00 -7.420697e-01 1.570796e+00
1.364935e+00 2.021313e+00 2.754942e+00 7.782504e-01 1.152500e+00 1.570796e+00
-2.067061e+00 -2.591621e+00 -2.754942e+00 -1.178585e+00 -1.477675e+00 -1.570796e+00
2.754942e+00 2.341161e+00 1.677459e+00 1.570796e+00 1.334869e+00 9.564434e-01
-1.092301e+00 2.754942e+00 -2.429316e+00 -6.228015e-01 1.570796e+00 -1.385133e+00
-1.140138e+00 -1.666365e+00 2.754942e+00 -6.500772e-01 -9.501182e-01 1.570796e+00
7.940110e-01 -2.754942e+00 1.186431e+00 4.527245e-01 -1.570796e+00 6.764722e-01
-2.754942e+00 1.990146e+00 -1.996400e-01 -1.570796e+00 1.134730e+00 -1.138295e-01
2.715223e+00 2.011624e+00 -2.754942e+00 1.548150e+00 1.146976e+00 -1.570796e+00
6.247346e-01 -2.754942e+00 1.828083e-01 3.562074e-01 -1.570796e+00 1.042326e-01
5.992776e-01 -2.754942e+00 -5.616173e-01 3.416925e-01 -1.570796e+00 -3.202196e-01
6.865983e-01 2.754942e+00 -1.984459e+00 3.914805e-01 1.570796e+00 -1.131487e+00
-2.754942e+00 1.069971e+00 -1.470731e+00 -1.570796e+00 6.100699e-01 -8.385725e-01
2.754942e+00 9.509946e-02 -2.563066e+00 1.570796e+00 5.422324e-02 -1.461394e+00
1.895167e+00 1.539350e+00 2.754942e+00 1.080575e+00 8.776972e-01 1.570796e+00
2.754942e+00 1.467976e+00 5.633972e-01 1.570796e+00 8.370017e-01 3.212344e-01
-1.394225e+00 -2.754942e+00 7.605379e-02 -7.949507e-01 -1.570796e+00 4.336390e-02
1.938847e+00 -2.754942e+00 -1.636897e+00 1.105480e+00 -1.570796e+00 -9.333164e-01
-1.779060e+00 -1.956105e+00 -2.754942e+00 -1.014374e+00 -1.115320e+00 -1.570796e+00
3.955986e-02 2.754942e+00 9.052734e-01 2.255600e-02 1.570796e+00 5.161634e-01
-1.632053e+00 -2.829430e-01 2.754942e+00 -9.305540e-01 -1.613267e-01 1.570796e+00
-5.302767e-01 1.496483e+00 2.754942e+00 -3.023500e-01 8.532558e-01 1.570796e+00
1.025244e+00 2.754942e+00 3.681496e-01 5.845675e-01 1.570796e+00 2.099093e-01
-1.304046e+00 -8.980127e-02 2.754942e+00 -7.435329e-01 -5.120235e-02 1.570796e+00
2.754942e+00 -1.411069e+00 -9.746973e-01 1.570796e+00 -8.045550e-01 -5.557471e-01
-2.754942e+00 3.722720e-01 2.258325e+00 -1.570796e+00 2.122598e-01 1.287639e+00
1.871094e-01 -1.122750e+00 -2.754942e+00 1.066849e-01 -6.401630e-01 -1.570796e+00
-2.754942e+00 -5.463748e-01 -1.049617e+00 -1.570796e+00 -3.115287e-01 -5.984642e-01
2.392304e+00 2.084044e+00 -2.754942e+00 1.364029e+00 1.188268e+00 -1.570796e+00
-2.754942e+00 1.066525e+00 -4.224544e-01 -1.570796e+00 6.081047e-01 -2.408725e-01
-1.043536e+00 2.355537e+00 -2.754942e+00 -5.949970e-01 1.343066e+00 -1.570796e+00
1.385820e+00 -2.754942e+00 7.413403e-01 7.901588e-01 -1.570796e+00 4.226930e-01
-1.617403e+00 2.556755e-02 -2.754942e+00 -9.222010e-01 1.457795e-02 -1.570796e+00
8.217073e-01 -1.256771e+00 2.754942e+00 4.685161e-01 -7.165782e-01 1.570796e+00
2.754942e+00 -2.330049e+00 -1.629776e+00 1.570796e+00 -1.328533e+00 -9.292561e-01
-4.877636e-01 1.876342e+00 2.754942e+00 -2.781101e-01 1.069842e+00 1.570796e+00
2.338364e+00 -2.621205e+00 2.754942e+00 1.333274e+00 -1.494543e+00 1.570796e+00
-2.754942e+00 7.337206e-02 1.319304e+00 -1.570796e+00 4.183485e-02 7.522329e-01
8.054202e-01 2.754942e+00 5.212778e-01 4.592297e-01 1.570796e+00 2.972190e-01
-7.402181e-02 2.754942e+00 -1.241230e+00 -4.220531e-02 1.570796e+00 -7.077172e-01
-6.592959e-01 -1.612491e+00 2.754942e+00 -3.759134e-01 -9.194005e-01 1.570796e+00
1.593663e+00 2.754942e+00 3.210834e-01 9.086653e-01 1.570796e+00 1.830734e-01
-2.754942e+00 2.439857e+00 1.893248e+00 -1.570796e+00 1.391143e+00 1.079481e+00
-1.433310e-01 8.685269e-01 -2.754942e+00 -8.172359e-02 4.952115e-01 -1.570796e+00
2.754942e+00 -2.361663e+00 -4.082065e-02 1.570796e+00 -1.346559e+00 -2.327488e-02
2.754942e+00 1.011372e+00 -2.676414e+00 1.570796e+00 5.766579e-01 -1.526022e+00
2.754942e+00 2.017996e+00 1.539707e+00 1.570796e+00 1.150609e+00 8.779011e-01
-9.708880e-01 -2.754942e+00 2.109977e-02 -5.535751e-01 -1.570796e+00 1.203054e-02
-1.893759e+00 -2.754942e+00 1.973565e+00 -1.079772e+00 -1.570796e+00 1.125275e+00
2.754942e+00 -2.501243e+00 1.820609e+00 1.570796e+00 -1.426144e+00 1.038064e+00
2.754942e+00 -1.416939e+00 -1.109231e+00 1.570796e+00 -8.079018e-01 -6.324548e-01
-8.010109e-01 1.712442e+00 -2.754942e+00 -4.567156e-01 9.763902e-01 -1.570796e+00
2.754942e+00 2.721871e+00 1.898119e+00 1.570796e+00 1.551940e+00 1.082258e+00
1.468138e+00 -2.754942e+00 -6.587233e-02 8.370943e-01 -1.570796e+00 -3.755869e-02
-1.300393e+00 1.592456e+00 2.754942e+00 -7.414502e-01 9.079769e-01 1.570796e+00
-2.096194e+00 -2.284385e+00 -2.754942e+00 -1.195195e+00 -1.302497e+00 -1.570796e+00
1.291987e+00 -2.754942e+00 -2.647329e+00 7.366576e-01 -1.570796e+00 -1.509438e+00
2.462201e+00 -1.653778e-01 -2.754942e+00 1.403883e+00 -9.429411e-02 -1.570796e+00
1.633865e+00 6.326787e-01 -2.754942e+00 9.315874e-01 3.607370e-01 -1.570796e+00
-2.754942e+00 -1.459309e+00 -1.157547e+00 -1.570796e+00 -8.320602e-01 -6.600034e-01
1.671864e+00 2.754942e+00 -2.678019e+00 9.532534e-01 1.570796e+00 -1.526937e+00
-1.051916e+00 -2.030321e+00 -2.754942e+00 -5.997753e-01 -1.157637e+00 -1.570796e+00
-5.143145e-01 7.559816e-01 -2.754942e+00 -2.932488e-01 4.310411e-01 -1.570796e+00
-2.654830e+00 -2.754942e+00 -1.804584e+00 -1.513715e+00 -1.570796e+00 -1.028927e+00
2.754942e+00 2.167313e+00 6.506068e-01 1.570796e+00 1.235745e+00 3.709591e-01
2.344626e+00 2.754942e+00 -2.384678e+00 1.336845e+00 1.570796e+00 -1.359681e+00
-2.754942e+00 9.114605e-01 -1.703094e+00 -1.570796e+00 5.196911e-01 -9.710601e-01
-7.207048e-01 -2.754942e+00 1.211805e+00 -4.109271e-01 -1.570796e+00 6.909400e-01
-2.754942e+00 -1.309512e+00 -8.711283e-01 -1.570796e+00 -7.466496e-01 -4.966947e-01
2.070718e+00 -2.754942e+00 -6.553015e-01 1.180670e+00 -1.570796e+00 -3.736359e-01
1.414221e+00 2.132459e+00 2.754942e+00 8.063523e-01 1.215872e+00 1.570796e+00
-1.163057e+00 2.754942e+00 6.387419e-01 -6.631447e-01 1.570796e+00 3.641941e-01
6.541218e-01 -1.464901e-01 2.754942e+00 3.729633e-01 -8.352485e-02 1.570796e+00
-2.754942e+00 -1.025314e+00 -1.854866e+00 -1.570796e+00 -5.846073e-01 -1.057596e+00
2.642857e+00 2.754942e+00 9.779707e-01 1.506889e+00 1.570796e+00 5.576135e-01
-2.754942e+00 -1.127724e+00 -1.266990e+00 -1.570796e+00 -6.429990e-01 -7.224045e-01
-1.310973e-02 -1.566254e+00 -2.754942e+00 -7.474826e-03 -8.930375e-01 -1.570796e+00
-1.267479e+00 -2.640913e+00 2.754942e+00 -7.226835e-01 -1.505780e+00 1.570796e+00
-2.451521e+00 -3.853602e-01 2.754942e+00 -1.397793e+00 -2.197223e-01 1.570796e+00
8.269116e-01 3.360957e-01 -2.754942e+00 4.714835e-01 1.916331e-01 -1.570796e+00
7.256487e-01 -1.504467e+00 -2.754942e+00 4.137460e-01 -8.578082e-01 -1.570796e+00
-2.754942e+00 -1.525247e+00 1.045556e+00 -1.570796e+00 -8.696560e-01 5.961489e-01
-1.091411e+00 -2.754942e+00 2.195445e+00 -6.222940e-01 -1.570796e+00 1.251786e+00
8.438784e-01 2.754942e+00 2.709236e+00 4.811576e-01 1.570796e+00 1.544736e+00
2.754942e+00 2.565653e+00 7.548229e-01 1.570796e+00 1.462869e+00 4.303804e-01
2.322191e+00 2.754942e+00 -5.685253e-01 1.324053e+00 1.570796e+00 -3.241584e-01
-2.754942e+00 2.966254e-01 7.255949e-01 -1.570796e+00 1.691281e-01 4.137153e-01
-2.220535e-01 -5.337738e-01 2.754942e+00 -1.266091e-01 -3.043440e-01 1.570796e+00
3.157833e-01 -1.854628e+00 -2.754942e+00 1.800515e-01 -1.057461e+00 -1.570796e+00
2.754942e+00 1.085591e+00 2.738151e+00 1.570796e+00 6.189760e-01 1.561222e+00
1.153259e+00 -2.754942e+00 -1.622566e+00 6.575583e-01 -1.570796e+00 -9.251449e-01
-2.198843e+00 2.754942e+00 1.653919e+00 -1.253723e+00 1.570796e+00 9.430215e-01
1.992181e+00 2.754942e+00 2.557031e+00 1.135890e+00 1.570796e+00 1.457953e+00
-1.134626e+00 -1.795354e+00 -2.754942e+00 -6.469341e-01 -1.023664e+00 -1.570796e+00
2.754942e+00 -1.380466e-01 -4.371616e-01 1.570796e+00 -7.871057e-02 -2.492582e-01
-2.669211e+00 6.546168e-01 2.754942e+00 -1.521915e+00 3.732455e-01 1.570796e+00
2.946027e-01 -2.754942e+00 8.473569e-01 1.679748e-01 -1.570796e+00 4.831409e-01
-8.644690e-01 -1.600206e+00 -2.754942e+00 -4.928978e-01 -9.123961e-01 -1.570796e+00
1.995007e+00 -1.907161e+00 -2.754942e+00 1.137501e+00 -1.087414e+00 -1.570796e+00
-2.716983e+00 2.754942e+00 3.485810e-01 -1.549153e+00 1.570796e+00 1.987518e-01
1.418557e+00 2.754942e+00 1.441460e+00 8.088241e-01 1.570796e+00 8.218830e-01
1.071687e+00 2.338974e+00 2.754942e+00 6.110482e-01 1.333622e+00 1.570796e+00
-1.050931e+00 3.195158e-01 -2.754942e+00 -5.992134e-01 1.821796e-01 -1.570796e+00
-2.959216e-01 1.158798e+00 -2.754942e+00 -1.687268e-01 6.607164e-01 -1.570796e+00
2.754942e+00 2.198294e+00 1.935648e+00 1.570796e+00 1.253410e+00 1.103656e+00
-2.334371e-01 -2.754942e+00 -2.250120e+00 -1.330998e-01 -1.570796e+00 -1.282960e+00
-2.754942e+00 -4.458298e-02 6.550733e-01 -1.570796e+00 -2.542006e-02 3.735058e-01
2.732235e+00 -7.342736e-01 2.754942e+00 1.557849e+00 -4.186637e-01 1.570796e+00
2.754942e+00 -4.757530e-01 -1.477319e+00 1.570796e+00 -2.712620e-01 -8.423290e-01
2.754942e+00 -2.066735e+00 -7.545057e-02 1.570796e+00 -1.178399e+00 -4.301995e-02
2.052093e+00 -1.695448e+00 -2.754942e+00 1.170050e+00 -9.667003e-01 -1.570796e+00
2.598669e+00 -2.306906e+00 -2.754942e+00 1.481694e+00 -1.315338e+00 -1.570796e+00
1.823103e+00 -2.754942e+00 -1.994655e+00 1.039486e+00 -1.570796e+00 -1.137300e+00
-2.754942e+00 -3.905930e-01 2.601776e+00 -1.570796e+00 -2.227060e-01 1.483465e+00
-1.785934e+00 2.364480e+00 2.754942e+00 -1.018293e+00 1.348165e+00 1.570796e+00
2.754942e+00 -1.285211e+00 1.633379e+00 1.570796e+00 -7.327937e-01 9.313105e-01
-1.057737e+00 1.566130e-01 2.754942e+00 -6.030944e-01 8.929668e-02 1.570796e+00
-1.246559e+00 2.951093e-01 -2.754942e+00 -7.107557e-01 1.682637e-01 -1.570796e+00
-9.867046e-01 -6.717432e-01 -2.754942e+00 -5.625933e-01 -3.830105e-01 -1.570796e+00
-2.754942e+00 -2.242609e+00 -4.078904e-01 -1.570796e+00 -1.278678e+00 -2.325685e-01
-1.491958e+00 -2.754942e+00 -1.520089e+00 -8.506757e-01 -1.570796e+00 -8.667150e-01
-2.172133e+00 -1.786494e+00 -2.754942e+00 -1.238494e+00 -1.018612e+00 -1.570796e+00
4.183668e-01 2.644822e+00 2.754942e+00 2.385419e-01 1.508009e+00 1.570796e+00
-2.754942e+00 2.625322e-01 8.304553e-03 -1.570796e+00 1.496891e-01 4.735040e-03
3.421549e-01 -2.754942e+00 2.394360e+00 1.950878e-01 -1.570796e+00 1.365202e+00
2.473883e+00 -1.807043e+00 -2.754942e+00 1.410544e+00 -1.030329e+00 -1.570796e+00
-1.770813e+00 -2.754942e+00 2.572876e+00 -1.009671e+00 -1.570796e+00 1.466987e+00
-2.861421e-01 -6.538796e-01 -2.754942e+00 -1.631508e-01 -3.728251e-01 -1.570796e+00
2.754942e+00 -2.646312e+00 -8.587130e-01 1.570796e+00 -1.508858e+00 -4.896158e-01
6.247703e-01 -3.220531e-01 -2.754942e+00 3.562278e-01 -1.836263e-01 -1.570796e+00
1.412980e+00 2.754942e+00 -2.233407e+00 8.056447e-01 1.570796e+00 -1.273431e+00
-2.754942e+00 1.940285e+00 1.801832e+00 -1.570796e+00 1.106300e+00 1.027358e+00
1.584168e+00 -2.417711e+00 2.754942e+00 9.032517e-01 -1.378516e+00 1.570796e+00
3.456374e-01 -2.754942e+00 5.304963e-01 1.970735e-01 -1.570796e+00 3.024752e-01
-2.005485e+00 -2.754942e+00 6.902148e-01 -1.143475e+00 -1.570796e+00 3.935425e-01
2.119147e+00 -2.754942e+00 2.235575e+00 1.208283e+00 -1.570796e+00 1.274667e+00
-2.754942e+00 -1.699378e+00 6.677028e-01 -1.570796e+00 -9.689412e-01 3.807068e-01
1.365151e-02 -2.754942e+00 -1.032037e+00 7.783735e-03 -1.570796e+00 -5.884407e-01
-2.754942e+00 -2.632540e+00 -2.929580e-01 -1.570796e+00 -1.501006e+00 -1.670370e-01
2.754942e+00 2.265159e+00 -2.504329e+00 1.570796e+00 1.291535e+00 -1.427903e+00
-7.126369e-01 -2.754942e+00 -1.336934e+00 -4.063271e-01 -1.570796e+00 -7.622850e-01
-1.658985e+00 -2.125735e+00 2.754942e+00 -9.459103e-01 -1.212039e+00 1.570796e+00
-1.273151e+00 4.634992e-01 2.754942e+00 -7.259177e-01 2.642752e-01 1.570796e+00
-2.545367e+00 -2.754942e+00 2.463439e+00 -1.451302e+00 -1.570796e+00 1.404589e+00
-2.754942e+00 -1.402608e+00 1.133604e+00 -1.570796e+00 -7.997309e-01 6.463515e-01
-1.609968e+00 -3.610117e-02 2.754942e+00 -9.179620e-01 -2.058395e-02 1.570796e+00
1.274853e+00 -5.039046e-01 -2.754942e+00 7.268883e-01 -2.873133e-01 -1.570796e+00
-1.310526e+00 1.350833e+00 2.754942e+00 -7.472278e-01 7.702101e-01 1.570796e+00
-1.883856e-01 2.754942e+00 -9.766787e-01 -1.074126e-01 1.570796e+00 -5.568768e-01
9.995440e-01 2.754942e+00 -1.218511e+00 5.699140e-01 1.570796e+00 -6.947632e-01
1.861420e+00 2.754942e+00 -6.144729e-01 1.061334e+00 1.570796e+00 -3.503565e-01
-2.754942e+00 2.739972e+00 1.935887e+00 -1.570796e+00 1.562261e+00 1.103793e+00
2.649152e+00 -3.595325e-01 2.754942e+00 1.510478e+00 -2.049961e-01 1.570796e+00
1.199999e+00 -2.754942e+00 2.444012e+00 6.842082e-01 -1.570796e+00 1.393512e+00
-1.557791e+00 -7.955275e-02 -2.754942e+00 -8.882120e-01 -4.535891e-02 -1.570796e+00
1.144122e+00 2.754942e+00 -1.101334e+00 6.523487e-01 1.570796e+00 -6.279520e-01
5.587492e-01 1.793247e+00 2.754942e+00 3.185843e-01 1.022463e+00 1.570796e+00
2.743314e+00 1.707434e+00 2.754942e+00 1.564167e+00 9.735344e-01 1.570796e+00
2.221823e+00 2.754942e+00 -7.578979e-01 1.266826e+00 1.570796e+00 -4.321337e-01
-2.754942e+00 -2.685867e+00 1.377685e+00 -1.570796e+00 -1.531412e+00 7.855201e-01
-2.754942e+00 3.088159e-01 -2.826754e-01 -1.570796e+00 1.760788e-01 -1.611742e-01
2.026506e+00 2.754942e+00 -7.783695e-01 1.155461e+00 1.570796e+00 -4.438060e-01
2.754942e+00 1.103110e+00 -2.708849e+00 1.570796e+00 6.289645e-01 -1.544515e+00
2.111492e+00 7.493704e-01 -2.754942e+00 1.203918e+00 4.272715e-01 -1.570796e+00
-2.754942e+00 2.734977e+00 -2.091561e+00 -1.570796e+00 1.559413e+00 -1.192554e+00
-6.745952e-01 -2.115226e+00 2.754942e+00 -3.846367e-01 -1.206047e+00 1.570796e+00
2.754942e+00 9.185606e-01 2.851038e-01 1.570796e+00 5.237394e-01 1.625588e-01
2.754942e+00 -1.993402e-01 -1.437025e+00 1.570796e+00 -1.136586e-01 -8.193546e-01
2.416271e+00 -2.754942e+00 2.057661e+00 1.377695e+00 -1.570796e+00 1.173225e+00
2.360183e+00 -1.585172e+00 -2.754942e+00 1.345715e+00 -9.038239e-01 -1.570796e+00
7.149409e-01 -1.447561e+00 2.754942e+00 4.076407e-01 -8.253616e-01 1.570796e+00
2.672668e+00 -1.281968e-01 -2.754942e+00 1.523886e+00 -7.309449e-02 -1.570796e+00
1.680880e+00 2.642244e+00 -2.754942e+00 9.583944e-01 1.506539e+00 -1.570796e+00
2.754942e+00 -2.536295e+00 7.461313e-01 1.570796e+00 -1.446129e+00 4.254247e-01
-8.518123e-01 -2.754942e+00 -2.076887e+00 -4.856813e-01 -1.570796e+00 -1.184187e+00
6.672232e-01 -1.073243e-02 -2.754942e+00 3.804334e-01 -6.119352e-03 -1.570796e+00
-2.754942e+00 2.475443e-01 -5.759966e-01 -1.570796e+00 1.411433e-01 -3.284183e-01
-2.754942e+00 5.591389e-02 1.131024e+00 -1.570796e+00 3.188065e-02 6.448804e-01
-2.754942e+00 -2.661016e+00 -1.826425e-01 -1.570796e+00 -1.517242e+00 -1.041380e-01
-1.221679e+00 -2.754942e+00 1.697508e+00 -6.965697e-01 -1.570796e+00 9.678750e-01
2.754942e+00 1.305299e+00 -1.815371e+00 1.570796e+00 7.442477e-01 -1.035077e+00
4.003200e-01 2.754942e+00 1.036978e+00 2.282521e-01 1.570796e+00 5.912580e-01
1.983732e+00 -2.226224e+00 -2.754942e+00 1.131073e+00 -1.269335e+00 -1.570796e+00
2.754942e+00 2.349871e+00 2.416735e+00 1.570796e+00 1.339836e+00 1.377960e+00
2.754942e+00 8.909356e-01 -1.156683e+00 1.570796e+00 5.079884e-01 -6.595105e-01
5.256547e-01 -1.590588e+00 -2.754942e+00 2.997146e-01 -9.069122e-01 -1.570796e+00
-1.756150e+00 2.754942e+00 7.880877e-01 -1.001311e+00 1.570796e+00 4.493472e-01
-2.072569e-01 1.328781e+00 -2.754942e+00 -1.181725e-01 7.576363e-01 -1.570796e+00
1.097589e+00 2.130855e-02 -2.754942e+00 6.258167e-01 1.214958e-02 -1.570796e+00
2.733579e+00 2.754942e+00 2.754130e+00 1.558616e+00 1.570796e+00 1.570333e+00
8.220166e-01 -2.754942e+00 -1.775705e+00 4.686925e-01 -1.570796e+00 -1.012461e+00
9.798940e-01 9.866459e-01 2.754942e+00 5.587101e-01 5.625599e-01 1.570796e+00
6.571961e-01 2.754942e+00 2.093238e-02 3.747161e-01 1.570796e+00 1.193510e-02
8.600391e-01 2.754942e+00 -2.736121e+00 4.903720e-01 1.570796e+00 -1.560065e+00
-2.754942e+00 -1.862557e+00 7.876641e-01 -1.570796e+00 -1.061982e+00 4.491056e-01
-5.471701e-01 2.754942e+00 1.262456e+00 -3.119822e-01 1.570796e+00 7.198198e-01
2.754942e+00 7.628607e-01 2.651486e+00 1.570796e+00 4.349634e-01 1.511809e+00
2.754942e+00 5.670436e-01 -1.962908e+00 1.570796e+00 3.233135e-01 -1.119199e+00
1.450252e+00 2.754942e+00 2.247044e+00 8.268962e-01 1.570796e+00 1.281206e+00
2.176602e+00 2.754942e+00 -1.073320e+00 1.241042e+00 1.570796e+00 -6.119789e-01
1.044734e+00 2.241564e+00 -2.754942e+00 5.956802e-01 1.278081e+00 -1.570796e+00
-2.754942e+00 -1.667314e+00 -1.194702e+00 -1.570796e+00 -9.506591e-01 -6.811880e-01
-6.003186e-01 -2.754942e+00 1.863632e+00 -3.422860e-01 -1.570796e+00 1.062595e+00
-2.053303e+00 2.527855e-01 -2.754942e+00 -1.170740e+00 1.441317e-01 -1.570796e+00
2.754942e+00 9.746097e-01 1.741925e+00 1.570796e+00 5.556971e-01 9.932006e-01
2.949600e-02 1.720953e+00 -2.754942e+00 1.681785e-02 9.812427e-01 -1.570796e+00
3.299576e-01 -1.054194e+00 2.754942e+00 1.881333e-01 -6.010739e-01 1.570796e+00
2.754942e+00 2.054887e+00 9.083132e-01 1.570796e+00 1.171643e+00 5.178966e-01
-2.754942e+00 2.285509e+00 -1.307791e+00 -1.570796e+00 1.303138e+00 -7.456686e-01
-8.783524e-02 -2.754942e+00 2.206990e+00 -5.008137e-02 -1.570796e+00 1.258369e+00
8.419519e-01 9.525958e-01 2.754942e+00 4.800591e-01 5.431454e-01 1.570796e+00
-2.754942e+00 1.892222e+00 -2.073623e-01 -1.570796e+00 1.078896e+00 -1.182326e-01
3.831156e-01 1.834583e+00 -2.754942e+00 2.184426e-01 1.046031e+00 -1.570796e+00
-2.754942e+00 1.536642e+00 1.181044e+00 -1.570796e+00 8.761536e-01 6.734008e-01
8.478596e-01 -1.694748e+00 2.754942e+00 4.834275e-01 -9.663012e-01 1.570796e+00
-2.754942e+00 1.552099e+00 6.370931e-01 -1.570796e+00 8.849663e-01 3.632539e-01
1.664922e-01 2.754942e+00 1.728674e+00 9.492954e-02 1.570796e+00 9.856450e-01
-2.754942e+00 -2.286106e+00 6.190286e-01 -1.570796e+00 -1.303478e+00 3.529540e-01
2.754942e+00 7.507051e-01 -3.249493e-01 1.570796e+00 4.280326e-01 -1.852777e-01
-1.792590e+00 -1.372025e+00 -2.754942e+00 -1.022088e+00 -7.822933e-01 -1.570796e+00
-5.230930e-01 9.809624e-01 -2.754942e+00 -2.982540e-01 5.593193e-01 -1.570796e+00
-7.474209e-01 -1.204135e+00 -2.754942e+00 -4.261600e-01 -6.865664e-01 -1.570796e+00
-2.673157e+00 -1.543308e+00 -2.754942e+00 -1.524165e+00 -8.799539e-01 -1.570796e+00
2.043082e+00 -3.176216e-01 -2.754942e+00 1.164912e+00 -1.810996e-01 -1.570796e+00
-1.305391e+00 -2.754942e+00 -2.314497e+00 -7.442998e-01 -1.570796e+00 -1.319666e+00
-1.059004e+00 -2.754942e+00 -2.460681e-01 -6.038168e-01 -1.570796e+00 -1.403016e-01
2.754942e+00 -1.922607e+00 -1.580336e+00 1.570796e+00 -1.096220e+00 -9.010667e-01
-1.844117e+00 -2.754942e+00 -1.287550e+00 -1.051468e+00 -1.570796e+00 -7.341277e-01
2.754942e+00 1.088631e-01 9.308360e-01 1.570796e+00 6.207088e-02 5.307385e-01
2.754942e+00 -1.142852e-01 -9.488890e-01 1.570796e+00 -6.516244e-02 -5.410318e-01
1.583240e-01 7.241554e-01 -2.754942e+00 9.027224e-02 4.128946e-01 -1.570796e+00
-2.754942e+00 -1.433938e+00 -2.013603e+00 -1.570796e+00 -8.175944e-01 -1.148104e+00
-2.358726e+00 2.754942e+00 -9.112245e-01 -1.344884e+00 1.570796e+00 -5.195565e-01
-2.899297e-02 2.754942e+00 2.254178e+00 -1.653104e-02 1.570796e+00 1.285274e+00
2.754942e+00 1.270182e+00 -2.678932e+00 1.570796e+00 7.242246e-01 -1.527457e+00
2.754942e+00 -1.922757e+00 1.807896e+00 1.570796e+00 -1.096306e+00 1.030816e+00
-5.144205e-01 6.599919e-01 -2.754942e+00 -2.933092e-01 3.763103e-01 -1.570796e+00
-9.839305e-01 2.754942e+00 1.405189e+00 -5.610116e-01 1.570796e+00 8.012024e-01
1.649348e+00 -2.754942e+00 2.670504e+00 9.404151e-01 -1.570796e+00 1.522652e+00
2.703514e+00 2.754942e+00 6.207608e-01 1.541474e+00 1.570796e+00 3.539417e-01
-9.623570e-01 7.521225e-01 -2.754942e+00 -5.487110e-01 4.288407e-01 -1.570796e+00
2.754942e+00 -1.430642e-01 9.902250e-01 1.570796e+00 -8.157148e-02 5.646005e-01
2.754942e+00 1.238954e+00 2.025867e+00 1.570796e+00 7.064193e-01 1.155097e+00
-2.754942e+00 2.530575e+00 2.427286e+00 -1.570796e+00 1.442868e+00 1.383976e+00
8.277478e-01 2.754942e+00 8.849176e-01 4.719603e-01 1.570796e+00 5.045570e-01
-2.275784e-01 -2.754942e+00 -5.489980e-01 -1.297593e-01 -1.570796e+00 -3.130244e-01
-2.754942e+00 8.706737e-01 5.670069e-01 -1.570796e+00 4.964355e-01 3.232926e-01
-2.364387e+00 2.754942e+00 1.783672e-01 -1.348112e+00 1.570796e+00 1.017003e-01
1.690829e+00 2.754942e+00 1.196737e+00 9.640670e-01 1.570796e+00 6.823485e-01
-1.977354e+00 2.754942e+00 1.067037e+00 -1.127436e+00 1.570796e+00 6.083965e-01
-2.754942e+00 -7.847172e-01 1.378242e+00 -1.570796e+00 -4.474253e-01 7.858378e-01
-2.479986e+00 -4.791734e-01 2.754942e+00 -1.414023e+00 -2.732122e-01 1.570796e+00
7.167160e-01 -2.754942e+00 2.367279e+00 4.086528e-01 -1.570796e+00 1.349761e+00
2.545686e-01 2.754942e+00 -4.363496e-01 1.451484e-01 1.570796e+00 -2.487952e-01
1.454800e+00 2.754942e+00 -2.061222e+00 8.294890e-01 1.570796e+00 -1.175255e+00
-2.698165e+00 -2.546545e+00 2.754942e+00 -1.538424e+00 -1.451974e+00 1.570796e+00
-2.814763e-01 -2.754942e+00 -3.389484e-01 -1.604905e-01 -1.570796e+00 -1.932595e-01
-4.125369e-01 1.040896e+00 -2.754942e+00 -2.352178e-01 5.934918e-01 -1.570796e+00
2.754942e+00 -7.861796e-01 1.136014e+00 1.570796e+00 -4.482592e-01 6.477258e-01
-2.754942e+00 1.919698e+00 -2.224069e+00 -1.570796e+00 1.094562e+00 -1.268107e+00
2.754942e+00 -9.286732e-02 1.650858e+00 1.570796e+00 -5.295054e-02 9.412763e-01
-4.650193e-03 8.351000e-01 2.754942e+00 -2.651419e-03 4.761523e-01 1.570796e+00
-1.718740e+00 -2.754942e+00 -2.055075e+00 -9.799807e-01 -1.570796e+00 -1.171751e+00
-1.429659e+00 -1.165170e+00 -2.754942e+00 -8.151544e-01 -6.643497e-01 -1.570796e+00
7.820888e-02 2.754942e+00 -2.700040e+00 4.459267e-02 1.570796e+00 -1.539493e+00
1.888772e-01 -2.754942e+00 2.808643e-01 1.076929e-01 -1.570796e+00 1.601415e-01
1.585352e+00 -1.628259e+00 2.754942e+00 9.039266e-01 -9.283909e-01 1.570796e+00
2.770173e-01 2.656854e+00 2.754942e+00 1.579481e-01 1.514869e+00 1.570796e+00
-2.754942e+00 3.193290e-01 -2.572951e+00 -1.570796e+00 1.820731e-01 -1.467030e+00
1.642745e+00 1.162055e+00 -2.754942e+00 9.366505e-01 6.625737e-01 -1.570796e+00
-2.754942e+00 -7.894815e-02 -7.578669e-01 -1.570796e+00 -4.501419e-02 -4.321160e-01
-9.508623e-01 -2.754942e+00 1.952264e+00 -5.421570e-01 -1.570796e+00 1.113130e+00
-2.623322e+00 -2.754942e+00 -1.417532e+00 -1.495750e+00 -1.570796e+00 -8.082398e-01
2.754942e+00 -1.780744e+00 1.802818e+00 1.570796e+00 -1.015334e+00 1.027920e+00
-1.893139e+00 1.636415e-01 -2.754942e+00 -1.079419e+00 9.330416e-02 -1.570796e+00
5.861674e-01 -2.754942e+00 -2.509136e+00 3.342174e-01 -1.570796e+00 -1.430644e+00
-3.996925e-01 -3.976711e-02 2.754942e+00 -2.278943e-01 -2.267417e-02 1.570796e+00
-8.912145e-01 -3.811155e-01 -2.754942e+00 -5.081473e-01 -2.173022e-01 -1.570796e+00
2.210015e-01 -1.128639e-01 2.754942e+00 1.260093e-01 -6.435206e-02 1.570796e+00
2.754942e+00 -1.471826e+00 2.754548e+00 1.570796e+00 -8.391972e-01 1.570572e+00
-2.754942e+00 -1.514109e+00 2.523189e+00 -1.570796e+00 -8.633055e-01 1.438657e+00
1.521259e+00 -2.754942e+00 2.103663e+00 8.673824e-01 -1.570796e+00 1.199454e+00
-1.221475e+00 1.008668e+00 -2.754942e+00 -6.964531e-01 5.751161e-01 -1.570796e+00
2.958567e-01 2.504619e+00 -2.754942e+00 1.686898e-01 1.428069e+00 -1.570796e+00
-2.184285e+00 2.537004e+00 2.754942e+00 -1.245423e+00 1.446534e+00 1.570796e+00
5.381812e-01 -2.125902e+00 -2.754942e+00 3.068570e-01 -1.212134e+00 -1.570796e+00
2.754942e+00 -1.538506e+00 -2.213308e+00 1.570796e+00 -8.772160e-01 -1.261970e+00
1.138680e+00 2.754942e+00 -1.384919e+00 6.492459e-01 1.570796e+00 -7.896450e-01
1.123972e+00 -1.217055e+00 -2.754942e+00 6.408598e-01 -6.939331e-01 -1.570796e+00
1.303497e+00 -1.022401e+00 -2.754942e+00 7.432200e-01 -5.829463e-01 -1.570796e+00
4.725239e-01 -2.754942e+00 -1.676528e+00 2.694208e-01 -1.570796e+00 -9.559126e-01
-2.754942e+00 -1.798926e+00 2.172208e+00 -1.570796e+00 -1.025701e+00 1.238536e+00
-2.754942e+00 1.399241e+00 1.904066e+00 -1.570796e+00 7.978111e-01 1.085649e+00
2.754942e+00 4.976130e-01 -1.257503e+00 1.570796e+00 2.837260e-01 -7.169954e-01
-1.521794e+00 -2.754942e+00 2.209927e+00 -8.676874e-01 -1.570796e+00 1.260043e+00
-2.754942e+00 -1.648965e+00 3.544269e-01 -1.570796e+00 -9.401970e-01 2.020850e-01
-9.362539e-01 -2.754942e+00 -3.114820e-01 -5.338276e-01 -1.570796e+00 -1.775989e-01
2.754942e+00 6.906990e-01 2.715674e+00 1.570796e+00 3.938186e-01 1.548407e+00
-1.979931e+00 -2.612502e-02 -2.754942e+00 -1.128905e+00 -1.489581e-02 -1.570796e+00
-2.754942e+00 -1.643990e+00 -3.012120e-01 -1.570796e+00 -9.373605e-01 -1.717433e-01
-2.225934e+00 -2.754942e+00 -2.225627e-01 -1.269169e+00 -1.570796e+00 -1.268995e-01
-8.038691e-01 2.741780e+00 -2.754942e+00 -4.583453e-01 1.563291e+00 -1.570796e+00
7.116251e-01 -2.754942e+00 -1.711416e+00 4.057502e-01 -1.570796e+00 -9.758052e-01
-1.661725e+00 -2.754942e+00 -8.301584e-01 -9.474723e-01 -1.570796e+00 -4.733348e-01
